ply
format ascii 1.0
element vertex 1448
property float x
property float y
property float z
property uchar diffuse_red
property uchar diffuse_green
property uchar diffuse_blue
element face 0
property list uchar int vertex_indices
end_header
-7.62625 14.3585 -0.986228 212 210 212
-7.3091 14.6555 -1.03252 215 216 219
-7.1544 14.8782 -1.07451 210 206 211
-6.84949 15.231 -1.12692 202 203 204
-6.56027 15.5774 -1.18009 216 217 218
-6.32572 15.9399 -1.23574 204 202 204
-5.69785 16.6477 -1.34953 195 193 195
-5.43201 17.019 -1.40976 202 200 202
-5.10801 17.4387 -1.47541 195 196 197
-4.05471 24.8597 11.1619 176 174 178
-4.05471 24.8597 11.1095 176 174 178
-4.05471 24.8597 11.0571 176 174 178
-4.05471 24.8597 11.0047 176 174 178
-4.05471 24.8597 10.9525 176 174 178
-4.0236 24.92 10.9268 176 174 178
-4.0236 24.92 10.8746 176 174 178
-4.0236 24.92 10.8224 176 174 178
-3.99236 24.9806 10.7966 176 174 178
-3.99236 24.9806 10.7445 176 174 178
-3.99236 24.9806 10.6925 176 174 178
-4.0236 24.92 10.6147 176 174 178
-4.08569 24.7997 10.512 176 174 178
-4.08569 24.7997 10.4606 176 174 178
-4.08569 24.7997 10.4093 176 174 178
-4.08569 24.7997 10.358 176 174 178
-3.83147 25 10.3901 175 176 179
-3.83147 25 10.3386 175 176 179
-3.91343 25 10.2872 177 175 179
-3.83147 25 10.2358 175 176 179
-3.83147 25 10.1845 175 176 179
-3.83147 25 10.1333 175 176 179
-3.83147 25 10.0821 175 176 179
-3.83147 25 10.0311 175 176 179
-3.83147 25 9.98005 177 175 179
-3.83147 25 9.92912 177 175 179
-3.95444 25 9.87826 176 174 178
-3.95444 25 9.82747 176 174 178
-3.83147 25 9.77675 177 175 179
-3.83147 25 9.7261 177 175 179
-3.83147 25 9.67552 177 175 179
-3.83147 25 9.62501 177 175 179
-3.87244 25 9.57457 177 175 179
-3.87244 25 9.5242 177 175 179
-3.87244 25 9.47389 177 175 179
-3.87244 25 9.42365 177 175 179
-3.95444 25 9.37348 177 175 179
-3.74959 25 9.32337 177 175 179
-3.74959 25 9.27333 177 175 179
-3.74959 25 9.22335 177 175 179
-3.95444 25 9.17344 177 175 177
-3.95444 25 9.12359 177 175 177
-3.95444 25 9.07381 177 175 177
-3.95444 25 9.02409 177 175 177
-3.95444 25 8.97443 177 175 177
-3.87244 25 8.92484 177 175 179
-3.87244 25 8.87531 177 175 179
-3.87244 25 8.82584 177 175 179
-3.87244 25 8.77643 177 175 179
-3.91343 25 8.72708 176 177 180
-3.91343 25 8.67779 176 177 180
-3.91343 25 8.62856 175 176 179
-3.66778 25 8.5794 177 175 179
-3.66778 25 8.53029 177 175 179
-3.66778 25 8.48124 177 175 179
-3.66778 25 8.43225 177 175 179
-3.87244 25 8.38332 177 175 179
-3.87244 25 8.33444 177 175 179
-3.87244 25 8.28562 177 175 179
-3.79052 25 8.23686 177 175 179
-3.74959 25 8.18816 177 175 179
-3.70868 25 8.13951 177 175 179
-3.66778 25 8.09092 177 175 179
-3.70868 25 8.04238 177 175 179
-3.79052 25 7.9939 177 175 179
-3.79052 25 7.94547 177 175 179
-3.79052 25 7.8971 177 175 179
-3.79052 25 7.84878 177 175 179
-3.79052 25 7.80051 177 175 179
-3.79052 25 7.7523 177 175 179
-3.79052 25 7.70413 177 175 179
-3.70868 25 7.65602 177 175 179
-3.79052 25 7.60797 179 177 181
-3.79052 25 7.55996 179 177 181
-3.70868 25 7.51201 178 176 180
-3.66778 25 7.4641 178 176 180
-3.58606 25 7.41625 177 175 179
-3.58606 25 7.36844 177 175 179
-3.58606 25 7.32069 177 175 179
-3.58606 25 7.27298 177 175 179
-3.79052 25 7.22533 178 176 180
-3.79052 25 7.17772 178 176 180
-3.79052 25 7.13016 178 176 180
-3.70868 25 7.08265 177 175 179
-3.79052 25 7.03518 177 175 179
-3.70868 25 6.98776 176 174 178
-3.66778 25 6.94039 176 174 178
-3.66778 25 6.89307 176 174 178
-3.70868 25 6.84579 179 177 181
-3.70868 25 6.79855 179 177 181
-3.54523 25 6.75136 179 177 181
-3.50441 25 6.70422 179 177 181
-3.70868 25 6.65712 179 177 181
-3.70868 25 6.61006 179 177 181
-3.62691 25 6.56305 179 177 181
-3.50441 25 6.51608 179 177 181
-3.54523 25 6.46916 180 178 182
-3.62691 25 6.42228 179 177 181
-3.70868 25 6.37543 179 177 181
-3.66778 25 6.32864 180 178 182
-3.66778 25 6.28188 180 178 182
-3.66778 25 6.23516 181 179 183
-3.66778 25 6.18849 181 179 183
-3.66778 25 6.14186 181 179 183
-3.58606 25 6.09526 180 178 182
-3.58606 25 6.04871 180 178 182
-3.54523 25 6.00219 179 177 181
-3.54523 25 5.95572 179 177 181
-3.62691 25 5.90928 178 176 180
-3.54523 25 5.86289 179 177 181
-3.54523 25 5.81653 179 177 181
-3.54523 25 5.77021 179 177 181
-3.62691 25 5.72392 177 175 177
-3.62691 25 5.67768 177 175 177
-3.58606 25 5.63147 177 175 177
-3.58606 25 5.58529 177 175 177
-3.38207 25 5.53916 179 177 179
-3.38207 25 5.49306 179 177 179
-3.38207 25 5.44699 179 177 179
-3.38207 25 5.40096 179 177 179
-3.58606 25 5.35497 177 175 177
-3.58606 25 5.30901 177 175 177
-3.58606 25 5.26308 177 175 177
-3.58606 25 5.21719 177 175 177
-3.58606 25 5.17133 177 175 177
-3.58606 25 5.12551 177 175 177
-3.58606 25 5.07971 177 175 177
-3.58606 25 5.03396 177 175 177
-3.58606 25 4.98823 179 177 179
-3.58606 25 4.94253 179 177 179
-3.54523 25 4.89687 179 177 179
-3.54523 25 4.85124 179 177 179
-3.50441 25 4.80564 179 177 179
-3.50441 25 4.76007 179 177 179
-3.50441 25 4.71453 179 177 179
-3.50441 25 4.66902 179 177 179
-3.42283 25 4.62354 177 175 177
-3.38207 25 4.57809 177 175 177
-3.38207 25 4.53267 177 175 177
-3.38207 25 4.48728 177 175 177
-3.38207 25 4.44192 177 175 177
-3.34133 25 4.39659 177 175 177
-3.2192 25 4.35128 177 175 177
-3.2192 25 4.306 177 175 177
-3.38207 25 4.26075 177 175 177
-3.2192 25 4.21553 177 175 177
-3.2192 25 4.17033 177 175 177
-3.2192 25 4.12516 177 175 177
-3.2192 25 4.08002 177 175 177
-3.2192 25 4.0349 177 175 177
-3.2192 25 3.9898 177 175 177
-3.2192 25 3.94474 177 175 177
-3.46361 25 3.89969 177 175 177
-3.46361 25 3.85468 177 175 177
-3.46361 25 3.80968 177 175 177
-3.46361 25 3.76471 177 175 177
-3.46361 25 3.71977 177 175 177
-3.3006 25 3.67485 177 175 177
-3.3006 25 3.62995 177 175 177
-3.3006 25 3.58507 177 175 177
-3.42283 25 3.54022 177 175 177
-3.42283 25 3.49539 177 175 177
-3.42283 25 3.45058 177 175 177
-3.3006 25 3.40579 177 175 177
-3.3006 25 3.36103 177 175 177
-3.2192 25 3.31628 177 175 177
-3.2192 25 3.27156 177 175 177
-3.2192 25 3.22686 177 175 177
-3.34133 25 3.18217 177 175 177
-3.34133 25 3.13751 177 175 177
-3.34133 25 3.09287 177 175 177
-3.3006 25 3.04824 177 175 177
-3.3006 25 3.00364 177 175 177
-3.3006 25 2.95905 177 175 177
-3.2599 25 2.91449 177 175 177
-3.2599 25 2.86994 177 175 177
0.0400199 25 11.2249 174 172 176
0.0400199 25 11.1722 174 172 176
0.0400199 25 11.1195 174 172 176
0.0400199 25 11.0669 174 172 176
0.0400199 25 11.0143 174 172 176
0.0400199 25 10.9619 174 172 176
0.0800399 25 10.9095 174 172 176
0.0800399 25 10.8572 174 172 176
-0.0399189 24.9369 10.7777 177 175 179
-0.0399189 24.9369 10.7257 177 175 179
-0.0399189 24.9369 10.6738 177 175 179
0.0800399 25 10.6488 176 174 178
0.0800399 25 10.5969 176 174 178
0.0800399 25 10.5451 176 174 178
0.0800399 25 10.4934 176 174 178
0.0800399 25 10.4417 176 174 178
-0.158523 24.7567 10.289 177 175 179
-0.158523 24.7567 10.238 177 175 179
-0.0399189 24.9369 10.2612 177 175 179
-0.0399189 24.9369 10.21 177 175 179
-0.0399189 24.9369 10.1588 177 175 179
-0.0399189 24.9369 10.1077 177 175 179
0 24.9976 10.0811 177 175 179
-0.0796446 24.8765 9.98151 177 175 179
-0.0796446 24.8765 9.93076 177 175 179
-0.0399189 24.9369 9.90406 177 175 179
-0.0399189 24.9369 9.85333 177 175 179
-0.0399189 24.9369 9.80267 177 175 179
-0.0399189 24.9369 9.75208 177 175 179
-0.0399189 24.9369 9.70156 177 175 179
-0.0399189 24.9369 9.65111 177 175 179
-0.0399189 24.9369 9.60072 177 175 179
-0.0399189 24.9369 9.55041 177 175 179
-0.0399189 24.9369 9.50016 177 175 179
-0.0399189 24.9369 9.44998 177 175 179
-0.0399189 24.9369 9.39987 177 175 179
0.0400199 25 9.37348 177 175 177
0.0400199 25 9.32337 177 175 177
0.0800399 25 9.27333 177 175 177
0.0800399 25 9.22335 177 175 177
-0.0796446 24.8765 9.12814 179 177 181
-0.0796446 24.8765 9.07853 179 177 181
-0.0796446 24.8765 9.029 179 177 181
-0.0796446 24.8765 8.97952 179 177 181
0.0400199 25 8.97443 179 177 181
0.0400199 25 8.92484 179 177 181
0.0400199 25 8.87531 179 177 181
-0.0796446 24.8765 8.78225 179 177 181
0 24.9976 8.77557 179 177 181
12.82 25 11.2249 163 160 168
0 24.9976 8.72623 179 177 181
12.363 24.6901 11.0337 161 158 166
0 24.9976 8.67695 179 177 181
12.363 24.6901 10.9816 161 158 166
0.0800399 25 8.62856 179 177 181
12.5222 24.8093 10.9824 162 159 167
0.0800399 25 8.5794 179 177 181
12.4424 24.7495 10.904 162 159 167
0.160081 25 8.53029 179 177 181
12.4424 24.7495 10.852 163 160 168
0.160081 25 8.48124 179 177 181
12.6025 24.8693 10.8525 163 160 168
0.160081 25 8.43225 179 177 181
12.9212 25 10.8572 163 160 168
-0.0399189 24.9369 8.36216 180 178 182
12.4424 24.7495 10.6967 162 159 167
-0.0399189 24.9369 8.31341 180 178 182
12.6833 24.9296 10.7226 162 159 167
-0.0399189 24.9369 8.26471 180 178 182
12.8706 25 10.7008 163 160 168
-0.0399189 24.9369 8.21608 180 178 182
12.8706 25 10.6488 163 160 168
-0.0399189 24.9369 8.16749 180 178 182
12.82 25 10.5969 164 161 169
-0.0399189 24.9369 8.11897 180 178 182
12.8706 25 10.5451 164 161 169
-0.0399189 24.9369 8.0705 180 178 182
12.6833 24.9296 10.4638 164 161 169
-0.0399189 24.9369 8.02208 180 178 182
12.7645 24.9903 10.4376 165 162 170
-0.0399189 24.9369 7.97372 180 178 182
12.82 25 10.3901 163 160 168
-0.0399189 24.9369 7.92542 180 178 182
12.82 25 10.3386 163 160 168
-0.0399189 24.9369 7.87717 179 177 181
12.8706 25 10.2872 163 160 168
-0.0399189 24.9369 7.82897 179 177 181
12.9212 25 10.2358 163 160 168
-0.0399189 24.9369 7.78082 178 176 180
12.9212 25 10.1845 163 160 168
-0.0399189 24.9369 7.73273 178 176 180
12.972 25 10.1333 163 160 168
-0.0399189 24.9369 7.68469 177 175 179
12.972 25 10.0821 163 160 168
-0.0399189 24.9369 7.6367 177 175 179
12.82 25 10.0311 163 160 168
0.12006 25 7.60797 179 177 179
12.9212 25 9.98005 163 163 170
0.12006 25 7.55996 179 177 179
12.9212 25 9.92912 163 163 170
0.12006 25 7.51201 179 177 179
12.9212 25 9.87826 163 163 170
0.12006 25 7.4641 179 177 179
12.9212 25 9.82747 163 163 170
0.12006 25 7.41625 179 177 179
12.9212 25 9.77675 163 163 170
0.12006 25 7.36844 179 177 179
12.972 25 9.7261 163 163 170
0.12006 25 7.32069 179 177 179
12.972 25 9.67552 163 163 170
0.12006 25 7.27298 179 177 179
12.8706 25 9.62501 163 163 170
0.0400199 25 7.22533 180 177 179
12.6833 24.9296 9.54763 163 163 170
0.0400199 25 7.17772 180 177 179
12.6833 24.9296 9.49739 163 163 170
0.0400199 25 7.13016 180 177 179
12.6833 24.9296 9.44723 163 163 170
0.0400199 25 7.08265 180 177 179
12.6833 24.9296 9.39713 163 163 170
0.0400199 25 7.03518 180 177 179
12.972 25 9.37348 163 163 170
0.0400199 25 6.98776 180 177 179
13.0228 25 9.32337 163 163 170
0.0400199 25 6.94039 180 177 179
13.0228 25 9.27333 163 163 170
0.0400199 25 6.89307 180 177 179
13.0228 25 9.22335 163 163 170
0.12006 25 6.84579 181 178 180
12.972 25 9.17344 163 163 170
0.12006 25 6.79855 181 178 180
13.0738 25 9.12359 163 163 170
0.12006 25 6.75136 181 178 180
13.227 25 9.07381 163 163 170
0.12006 25 6.70422 181 178 180
13.227 25 9.02409 163 163 170
0.12006 25 6.65712 181 178 180
13.0228 25 8.97443 163 163 170
0.12006 25 6.61006 181 178 180
13.0228 25 8.92484 163 163 170
0.12006 25 6.56305 181 178 180
13.0738 25 8.87531 163 163 170
0.12006 25 6.51608 181 178 180
13.227 25 8.82584 163 163 170
0.200103 25 6.46916 180 177 179
13.2783 25 8.77643 164 164 173
0.160081 25 6.42228 180 177 179
13.2783 25 8.72708 164 164 173
0.160081 25 6.37543 180 177 179
13.2783 25 8.67779 164 164 173
0.160081 25 6.32864 180 177 179
13.2783 25 8.62856 164 164 173
0.160081 25 6.28188 180 177 179
13.2783 25 8.5794 164 164 173
0.160081 25 6.23516 180 177 179
12.972 25 8.53029 164 164 171
0.160081 25 6.18849 180 177 179
13.227 25 8.48124 164 164 173
0.160081 25 6.14186 180 177 179
13.227 25 8.43225 164 164 173
0.0800399 25 6.09526 179 177 179
13.0738 25 8.38332 164 164 171
0.0800399 25 6.04871 179 177 179
12.972 25 8.33444 164 164 171
0.0800399 25 6.00219 179 177 179
12.972 25 8.28562 165 165 172
0.0800399 25 5.95572 179 177 179
13.0738 25 8.23686 165 165 172
0.0800399 25 5.90928 179 177 179
13.227 25 8.18816 166 166 175
0.0800399 25 5.86289 179 177 179
13.227 25 8.13951 166 166 175
0.0800399 25 5.81653 179 177 179
13.227 25 8.09092 166 166 175
0.0800399 25 5.77021 179 177 179
13.227 25 8.04238 166 166 175
0.12006 25 5.72392 180 177 179
12.972 25 7.9939 166 166 173
0.12006 25 5.67768 180 177 179
12.972 25 7.94547 166 166 173
0.12006 25 5.63147 180 177 179
12.972 25 7.8971 166 166 173
0.12006 25 5.58529 180 177 179
12.972 25 7.84878 166 166 173
0.12006 25 5.53916 180 177 179
13.1759 25 7.80051 166 166 173
0.12006 25 5.49306 180 177 179
13.1759 25 7.7523 166 166 173
0.12006 25 5.44699 180 177 179
13.1759 25 7.70413 166 166 173
0.12006 25 5.40096 180 177 179
13.1759 25 7.65602 166 166 173
0.160081 25 5.35497 179 177 179
13.3296 25 7.60797 166 166 173
0.160081 25 5.30901 179 177 179
13.3296 25 7.55996 166 166 173
0.160081 25 5.26308 179 177 179
13.3296 25 7.51201 166 166 173
0.160081 25 5.21719 179 177 179
13.3296 25 7.4641 166 166 173
0.160081 25 5.17133 179 177 179
13.3296 25 7.41625 166 166 173
0.160081 25 5.12551 179 177 179
13.3296 25 7.36844 166 166 173
0.160081 25 5.07971 179 177 179
13.3296 25 7.32069 166 166 173
0.160081 25 5.03396 179 177 179
13.3296 25 7.27298 166 166 173
0.200103 25 4.98823 179 177 179
13.227 25 7.22533 167 167 174
0.200103 25 4.94253 179 177 179
13.227 25 7.17772 167 167 174
0.200103 25 4.89687 179 177 179
13.227 25 7.13016 167 167 174
0.200103 25 4.85124 179 177 179
13.227 25 7.08265 167 167 174
0.200103 25 4.80564 179 177 179
13.1248 25 7.03518 167 167 174
0.200103 25 4.76007 179 177 179
13.0738 25 6.98776 167 167 174
0.200103 25 4.71453 179 177 179
13.1759 25 6.94039 167 167 174
0.200103 25 4.66902 179 177 179
13.1759 25 6.89307 167 167 174
0.200103 25 4.62354 179 177 179
13.1248 25 6.84579 167 167 174
0.200103 25 4.57809 179 177 179
13.1248 25 6.79855 167 167 174
0.200103 25 4.53267 179 177 179
13.0738 25 6.75136 167 167 174
0.200103 25 4.48728 180 178 180
13.1248 25 6.70422 167 167 174
0.240126 25 4.44192 180 178 180
13.1759 25 6.65712 167 167 174
0.240126 25 4.39659 181 179 181
13.1759 25 6.61006 167 167 174
0.240126 25 4.35128 181 179 181
13.2783 25 6.56305 167 167 174
0.240126 25 4.306 181 179 181
13.2783 25 6.51608 167 167 174
0.0800399 25 4.26075 180 178 180
13.227 25 6.46916 166 166 173
0.0800399 25 4.21553 180 178 180
13.227 25 6.42228 166 166 173
0.0800399 25 4.17033 180 178 180
13.227 25 6.37543 166 166 173
0.0800399 25 4.12516 180 178 180
13.3811 25 6.32864 166 166 173
0.0800399 25 4.08002 180 178 180
13.3811 25 6.28188 166 166 173
0.0800399 25 4.0349 180 178 180
13.3811 25 6.23516 166 166 173
0.0800399 25 3.9898 180 178 180
13.3811 25 6.18849 166 166 173
0.0800399 25 3.94474 180 178 180
13.3811 25 6.14186 166 166 173
0.12006 25 3.89969 180 178 180
13.1248 25 6.09526 167 167 174
0.200103 25 3.85468 180 178 180
13.1248 25 6.04871 167 167 174
0.200103 25 3.80968 179 177 179
13.227 25 6.00219 167 167 174
0.200103 25 3.76471 179 177 179
13.227 25 5.95572 167 167 174
0.240126 25 3.71977 178 176 178
13.227 25 5.90928 167 167 174
0.240126 25 3.67485 178 176 178
13.227 25 5.86289 167 167 174
0.240126 25 3.62995 177 175 177
13.227 25 5.81653 167 167 174
0.240126 25 3.58507 177 175 177
13.227 25 5.77021 167 167 174
0.360203 25 3.54022 179 177 179
13.1759 25 5.72392 167 167 174
0.360203 25 3.49539 179 177 179
13.227 25 5.67768 167 167 174
0.360203 25 3.45058 179 177 179
13.227 25 5.63147 167 167 174
0.360203 25 3.40579 179 177 179
13.227 25 5.58529 167 167 174
0.360203 25 3.36103 179 177 179
13.227 25 5.53916 167 167 174
0.240126 25 3.31628 179 177 179
13.4326 25 5.49306 167 167 174
0.240126 25 3.27156 179 177 179
13.3296 25 5.44699 167 167 174
0.12006 25 3.22686 179 177 179
13.1759 25 5.40096 167 167 174
0.200103 25 3.18217 178 175 177
13.1759 25 5.35497 168 168 175
0.12006 25 3.13751 178 175 177
13.1759 25 5.30901 168 168 175
0.200103 25 3.09287 179 176 178
13.2783 25 5.26308 168 168 175
0.200103 25 3.04824 179 176 178
13.3811 25 5.21719 168 168 175
0.360203 25 3.00364 180 177 179
13.3811 25 5.17133 168 168 175
0.360203 25 2.95905 180 177 179
13.3811 25 5.12551 168 168 175
0.360203 25 2.91449 180 177 179
13.1759 25 5.07971 168 168 175
0.360203 25 2.86994 180 177 179
13.1759 25 5.03396 168 168 175
0.360203 25 2.82541 179 177 179
13.1248 25 4.98823 168 168 175
0.360203 25 2.78089 179 177 179
13.1248 25 4.94253 168 168 175
0.360203 25 2.7364 179 177 179
13.1248 25 4.89687 168 168 175
0.360203 25 2.69192 179 177 179
13.1248 25 4.85124 168 168 175
0.240126 25 2.64746 178 176 178
13.1248 25 4.80564 168 168 175
0.160081 25 2.60301 178 176 178
13.1248 25 4.76007 168 168 175
0.200103 25 2.55858 177 175 177
13.1248 25 4.71453 168 168 175
0.28015 25 2.51417 177 175 177
13.1248 25 4.66902 168 168 175
0.28015 25 2.46977 177 175 177
13.1759 25 4.62354 168 168 175
0.28015 25 2.42539 177 175 177
13.1759 25 4.57809 168 168 175
0.320176 25 2.38102 176 174 176
13.3811 25 4.53267 167 167 174
0.320176 25 2.33667 176 174 176
13.6396 25 4.48728 167 167 174
0.320176 25 2.29234 176 174 176
13.6396 25 4.44192 167 167 174
0.28015 25 2.24801 177 175 177
13.6396 25 4.39659 167 167 174
0.28015 25 2.2037 177 175 177
13.6396 25 4.35128 167 167 174
0.28015 25 2.15941 177 175 177
13.6396 25 4.306 167 167 174
0.400232 25 2.11513 183 174 174
13.6396 25 4.26075 167 167 174
0.400232 25 2.07086 177 170 171
13.4326 25 4.21553 167 167 174
0.400232 25 2.0266 183 177 180
13.6396 25 4.17033 167 167 174
0.320176 25 1.98236 170 167 169
13.6396 25 4.12516 167 167 174
0.400232 25 1.93813 152 143 143
13.4326 25 4.08002 167 167 174
0.360203 25 1.89391 140 128 121
13.4326 25 4.0349 167 167 174
0.320176 25 1.8497 103 83 73
13.6916 25 3.9898 167 167 174
13.7437 25 3.94474 167 167 174
13.4326 25 3.89969 168 168 175
13.4326 25 3.85468 168 168 175
13.4326 25 3.80968 168 168 175
13.4326 25 3.76471 168 168 175
13.6916 25 3.71977 168 168 175
13.6916 25 3.67485 168 168 175
13.6916 25 3.62995 168 168 175
13.6916 25 3.58507 168 168 175
13.5877 25 3.54022 170 170 177
13.7437 25 3.49539 168 168 175
13.7437 25 3.45058 168 168 175
13.7437 25 3.40579 168 168 175
13.7437 25 3.36103 168 168 175
13.7437 25 3.31628 168 168 175
13.6396 25 3.27156 168 168 175
13.6396 25 3.22686 168 168 175
13.3296 25 3.18217 170 170 177
13.3296 25 3.13751 170 170 177
13.3296 25 3.09287 170 170 177
13.3296 25 3.04824 171 171 178
13.3296 25 3.00364 171 171 178
13.3296 25 2.95905 172 172 179
13.3296 25 2.91449 172 172 179
13.3296 25 2.86994 172 172 179
13.4326 25 2.82541 173 171 175
13.5359 25 2.78089 173 171 175
13.4842 25 2.7364 173 171 175
13.4326 25 2.69192 173 171 175
13.4326 25 2.64746 173 171 175
13.5877 25 2.60301 173 171 175
13.5877 25 2.55858 173 171 175
13.5877 25 2.51417 173 171 175
13.4326 25 2.46977 172 173 176
13.4326 25 2.42539 172 173 176
13.6396 25 2.38102 174 175 178
13.6916 25 2.33667 173 174 177
-7.90401 14.056 -0.84136 195 193 195
-7.90401 14.056 -0.866167 194 192 194
-7.90401 14.056 -0.915799 197 195 197
-7.90401 14.056 -0.940623 209 207 209
-7.62199 14.3505 -0.985676 212 210 212
-7.3583 14.6366 -1.03119 208 209 212
-7.13129 14.8911 -1.07544 209 205 210
-6.84543 15.222 -1.12625 202 203 204
-6.55629 15.5679 -1.17937 216 217 218
-6.26282 15.9299 -1.23497 213 211 213
-5.74059 16.5989 -1.34558 189 187 189
-5.40845 17.0393 -1.41144 190 188 190
-5.10963 17.4443 -1.47587 195 196 197
-3.76332 19.3493 -1.77421 189 187 189
-4.06958 24.7019 11.0911 176 174 178
-4.06958 24.7019 11.039 176 174 178
-4.00766 24.8213 11.04 176 174 178
-4.03869 24.7614 10.9613 176 174 178
-4.03869 24.7614 10.9092 176 174 178
-4.03869 24.7614 10.8573 176 174 178
-3.97651 24.8814 10.8577 176 174 178
-3.79052 25 10.8572 177 175 179
-3.91343 25 10.805 176 174 178
-3.94522 24.9417 10.7278 176 174 178
-3.94522 24.9417 10.6759 176 174 178
-4.00766 24.8213 10.5727 176 174 178
-3.97651 24.8814 10.5466 176 174 178
-3.97651 24.8814 10.4951 176 174 178
-3.97651 24.8814 10.4436 176 174 178
-3.97651 24.8814 10.3921 176 174 178
-3.74959 25 10.3901 175 176 179
-3.74959 25 10.3386 175 176 179
-3.74959 25 10.2872 175 176 179
-3.74959 25 10.2358 175 176 179
-3.74959 25 10.1845 175 176 179
-3.74959 25 10.1333 175 176 179
-3.70868 25 10.0821 175 176 179
-3.70868 25 10.0311 175 176 179
-3.83147 25 9.98005 177 175 179
-3.83147 25 9.92912 177 175 179
-3.83147 25 9.87826 177 175 179
-3.87244 25 9.82747 177 175 179
-3.91343 25 9.77675 176 174 178
-3.91343 25 9.7261 176 174 178
-3.91343 25 9.67552 176 174 178
-3.91343 25 9.62501 176 174 178
-3.74959 25 9.57457 177 175 179
-3.74959 25 9.5242 177 175 179
-3.91343 25 9.47389 177 175 179
-3.91343 25 9.42365 177 175 179
-3.91343 25 9.37348 177 175 179
-3.87244 25 9.32337 177 175 179
-3.74959 25 9.27333 177 175 179
-3.74959 25 9.22335 177 175 179
-3.70868 25 9.17344 177 175 179
-3.74959 25 9.12359 177 175 179
-3.74959 25 9.07381 177 175 179
-3.74959 25 9.02409 177 175 179
-3.79052 25 8.97443 177 175 179
-3.79052 25 8.92484 177 175 179
-3.79052 25 8.87531 177 175 179
-3.79052 25 8.82584 177 175 179
-3.58606 25 8.77643 177 175 179
-3.58606 25 8.72708 177 175 179
-3.70868 25 8.67779 177 175 179
-3.70868 25 8.62856 177 175 179
-3.74959 25 8.5794 177 175 179
-3.74959 25 8.53029 177 175 179
-3.74959 25 8.48124 177 175 179
-3.74959 25 8.43225 177 175 179
-3.54523 25 8.38332 177 175 179
-3.54523 25 8.33444 177 175 179
-3.58606 25 8.28562 177 175 179
-3.58606 25 8.23686 177 175 179
-3.58606 25 8.18816 177 175 179
-3.62691 25 8.13951 177 175 179
-3.50441 25 8.09092 177 175 179
-3.58606 25 8.04238 177 175 179
-3.70868 25 7.9939 177 175 179
-3.70868 25 7.94547 177 175 179
-3.70868 25 7.8971 177 175 179
-3.70868 25 7.84878 177 175 179
-3.62691 25 7.80051 177 175 179
-3.54523 25 7.7523 179 177 181
-3.54523 25 7.70413 179 177 181
-3.54523 25 7.65602 179 177 181
-3.54523 25 7.60797 179 177 181
-3.54523 25 7.55996 179 177 181
-3.54523 25 7.51201 179 177 181
-3.46361 25 7.4641 179 177 181
-3.46361 25 7.41625 179 177 181
-3.42283 25 7.36844 179 177 181
-3.54523 25 7.32069 179 177 181
-3.54523 25 7.27298 179 177 181
-3.54523 25 7.22533 180 178 182
-3.54523 25 7.17772 180 178 182
-3.38207 25 7.13016 179 177 181
-3.38207 25 7.08265 179 177 181
-3.50441 25 7.03518 178 176 180
-3.54523 25 6.98776 178 176 180
-3.46361 25 6.94039 177 175 179
-3.54523 25 6.89307 177 175 179
-3.34133 25 6.84579 179 177 181
-3.46361 25 6.79855 179 177 181
-3.58606 25 6.75136 179 177 181
-3.46361 25 6.70422 179 177 181
-3.34133 25 6.65712 179 177 181
-3.34133 25 6.61006 179 177 181
-3.34133 25 6.56305 179 177 181
-3.34133 25 6.51608 179 177 181
-3.3006 25 6.46916 178 176 180
-3.2599 25 6.42228 177 175 179
-3.3006 25 6.37543 177 175 179
-3.3006 25 6.32864 177 175 179
-3.3006 25 6.28188 177 175 179
-3.3006 25 6.23516 177 175 179
-3.3006 25 6.18849 177 175 179
-3.34133 25 6.14186 178 176 180
-3.2599 25 6.09526 179 177 181
-3.2599 25 6.04871 179 177 181
-3.2599 25 6.00219 179 177 181
-3.2599 25 5.95572 179 177 181
-3.2599 25 5.90928 179 177 181
-3.2599 25 5.86289 179 177 181
-3.42283 25 5.81653 179 177 181
-3.42283 25 5.77021 179 177 181
-3.46361 25 5.72392 179 177 179
-3.46361 25 5.67768 179 177 179
-3.46361 25 5.63147 179 177 179
-3.46361 25 5.58529 179 177 179
-3.46361 25 5.53916 179 177 179
-3.38207 25 5.49306 179 177 179
-3.34133 25 5.44699 179 177 179
-3.46361 25 5.40096 179 177 179
-3.42283 25 5.35497 179 177 179
-3.42283 25 5.30901 179 177 179
-3.42283 25 5.26308 179 177 179
-3.42283 25 5.21719 179 177 179
-3.42283 25 5.17133 179 177 179
-3.38207 25 5.12551 179 177 179
-3.38207 25 5.07971 179 177 179
-3.34133 25 5.03396 179 177 179
-3.38207 25 4.98823 179 177 179
-3.38207 25 4.94253 179 177 179
-3.2192 25 4.89687 179 177 179
-3.2192 25 4.85124 179 177 179
-3.34133 25 4.80564 179 177 179
-3.3006 25 4.76007 179 177 179
-3.2192 25 4.71453 179 177 179
-3.2192 25 4.66902 179 177 179
-3.2192 25 4.62354 177 175 177
-3.2192 25 4.57809 177 175 177
-3.2599 25 4.53267 177 175 177
-3.3006 25 4.48728 177 175 177
-3.2192 25 4.44192 177 175 177
-3.2192 25 4.39659 177 175 177
-3.2192 25 4.35128 177 175 177
-3.2192 25 4.306 177 175 177
3.94293 24.9272 11.1923 172 170 174
3.84252 24.8069 11.0859 172 170 174
3.84252 24.8069 11.0336 172 170 174
3.74316 24.6877 10.9286 172 170 174
3.79271 24.7471 10.9029 172 170 174
3.84252 24.8069 10.8772 172 170 174
3.79271 24.7471 10.7991 172 170 174
3.79271 24.7471 10.7474 172 170 174
4.15981 25 10.805 172 170 174
4.15981 25 10.7529 172 170 174
3.79271 24.7471 10.5926 172 170 174
3.79271 24.7471 10.5411 172 170 174
3.79271 24.7471 10.4897 172 170 174
3.79271 24.7471 10.4385 172 170 174
3.99352 24.9878 10.4883 172 170 174
4.03652 25 10.4417 172 170 174
4.20094 25 10.3901 173 171 175
4.20094 25 10.3386 173 171 175
4.20094 25 10.2872 173 171 175
4.20094 25 10.2358 173 171 175
4.20094 25 10.1845 173 171 175
4.20094 25 10.1333 173 171 175
4.20094 25 10.0821 173 171 175
4.20094 25 10.0311 173 171 175
3.94293 24.9272 9.951 173 171 175
3.94293 24.9272 9.90022 173 171 175
3.94293 24.9272 9.8495 173 171 175
3.94293 24.9272 9.79886 173 171 175
3.94293 24.9272 9.74829 173 171 175
4.07759 25 9.7261 173 171 175
4.15981 25 9.67552 173 171 175
4.15981 25 9.62501 173 171 175
3.99352 24.9878 9.56991 173 171 175
3.99352 24.9878 9.51956 173 171 175
4.11869 25 9.47389 173 171 175
4.20094 25 9.42365 173 171 175
4.20094 25 9.37348 173 171 175
4.20094 25 9.32337 173 171 175
4.24211 25 9.27333 173 171 175
4.24211 25 9.22335 173 171 175
4.15981 25 9.17344 174 172 176
4.15981 25 9.12359 174 172 176
4.11869 25 9.07381 174 172 176
4.15981 25 9.02409 174 172 176
4.20094 25 8.97443 173 171 175
4.20094 25 8.92484 173 171 175
4.11869 25 8.87531 174 172 176
4.03652 25 8.82584 174 172 176
4.20094 25 8.77643 174 172 176
4.20094 25 8.72708 174 172 176
4.20094 25 8.67779 174 172 176
4.20094 25 8.62856 174 172 176
4.15981 25 8.5794 174 172 176
4.24211 25 8.53029 174 172 176
4.15981 25 8.48124 174 172 176
4.15981 25 8.43225 174 172 176
4.24211 25 8.38332 173 171 175
4.24211 25 8.33444 173 171 175
4.24211 25 8.28562 173 171 175
4.28329 25 8.23686 173 171 175
4.40698 25 8.18816 173 171 175
4.3245 25 8.13951 173 171 175
4.40698 25 8.09092 173 171 175
4.40698 25 8.04238 173 171 175
4.28329 25 7.9939 173 171 175
4.28329 25 7.94547 173 171 175
4.28329 25 7.8971 173 171 175
4.20094 25 7.84878 173 171 175
4.15981 25 7.80051 173 171 175
4.15981 25 7.7523 173 171 175
4.15981 25 7.70413 173 171 175
4.15981 25 7.65602 173 171 175
4.3245 25 7.60797 173 171 175
4.3245 25 7.55996 173 171 175
4.3245 25 7.51201 173 171 175
4.36572 25 7.4641 173 171 175
4.3245 25 7.41625 173 171 175
4.3245 25 7.36844 173 171 175
4.53087 25 7.32069 173 171 175
4.53087 25 7.27298 173 171 175
4.53087 25 7.22533 173 171 175
4.53087 25 7.17772 173 171 175
4.53087 25 7.13016 173 171 175
4.53087 25 7.08265 173 171 175
4.53087 25 7.03518 173 171 175
4.48955 25 6.98776 173 171 175
4.44825 25 6.94039 173 171 175
4.48955 25 6.89307 173 171 175
4.44825 25 6.84579 172 170 172
4.44825 25 6.79855 172 170 172
4.40698 25 6.75136 172 170 172
4.40698 25 6.70422 172 170 172
4.40698 25 6.65712 172 170 172
4.40698 25 6.61006 172 170 172
4.40698 25 6.56305 172 170 172
4.44825 25 6.51608 172 170 172
4.36572 25 6.46916 173 171 173
4.57222 25 6.42228 173 171 175
4.61359 25 6.37543 173 171 175
4.61359 25 6.32864 173 171 175
4.61359 25 6.28188 173 171 175
4.61359 25 6.23516 173 171 175
4.61359 25 6.18849 173 171 175
4.61359 25 6.14186 173 171 175
4.36572 25 6.09526 173 171 175
4.36572 25 6.04871 173 171 175
4.40698 25 6.00219 173 171 175
4.48955 25 5.95572 173 171 175
4.53087 25 5.90928 173 171 175
4.48955 25 5.86289 173 171 175
4.57222 25 5.81653 173 171 175
4.57222 25 5.77021 173 171 175
4.61359 25 5.72392 172 170 174
4.61359 25 5.67768 172 170 174
4.6964 25 5.63147 172 170 174
4.61359 25 5.58529 172 170 174
4.6964 25 5.53916 172 170 174
4.6964 25 5.49306 172 170 174
4.6964 25 5.44699 172 170 174
4.6964 25 5.40096 172 170 174
4.57222 25 5.35497 172 170 172
4.57222 25 5.30901 172 170 172
4.57222 25 5.26308 172 170 172
4.48955 25 5.21719 172 170 172
4.48955 25 5.17133 172 170 172
4.48955 25 5.12551 172 170 172
4.44825 25 5.07971 172 170 172
4.57222 25 5.03396 172 170 172
4.65498 25 4.98823 172 170 174
4.65498 25 4.94253 172 170 174
4.6964 25 4.89687 172 170 174
4.65498 25 4.85124 173 171 175
4.65498 25 4.80564 173 171 175
4.65498 25 4.76007 174 172 176
4.65498 25 4.71453 174 172 176
4.65498 25 4.66902 174 172 176
4.6964 25 4.62354 173 171 173
4.65498 25 4.57809 173 171 173
4.65498 25 4.53267 173 171 173
4.6964 25 4.48728 173 171 173
-0.0399061 24.929 11.1931 176 174 178
0.0798846 24.9515 11.1505 174 172 176
0.119885 24.9634 11.1032 174 172 176
0.119855 24.9573 11.048 174 172 176
0.119968 24.9808 11.0059 174 172 176
0.120018 24.9913 10.958 174 172 176
0.119877 24.9618 10.8928 174 172 176
0.159721 24.9436 10.8327 174 172 176
0.0399709 24.9694 10.7918 176 174 178
0.0399221 24.9389 10.7266 176 174 178
0.0398664 24.9041 10.6598 176 174 178
0.0398664 24.9041 10.608 176 174 178
0.0398854 24.916 10.5613 176 174 178
0.0398854 24.916 10.5097 176 174 178
0.0399694 24.9685 10.4801 176 174 178
0.0399694 24.9685 10.4285 176 174 178
-0.0399641 24.9652 10.3756 177 175 179
0 24.9477 10.317 177 175 179
0.0399555 24.9598 10.2706 177 175 179
0.12003 24.9937 10.2332 177 175 179
0.0800197 24.9937 10.1819 177 175 179
0.239834 24.9695 10.1209 177 175 179
0.159886 24.9695 10.0698 177 175 179
-0.0399641 24.9652 10.0171 177 175 179
0.120014 24.9903 9.97617 176 174 178
0.119956 24.9782 9.92045 176 174 178
0.120039 24.9956 9.87653 176 174 178
0.320176 25 9.82747 179 177 181
0.320176 25 9.77675 179 177 181
0.319664 24.96 9.71055 179 177 181
0.320021 24.9879 9.67084 179 177 181
0.159825 24.96 9.60962 178 176 180
0.12006 25 9.57457 177 175 177
0.12006 25 9.5242 177 175 177
0.12006 25 9.47389 177 175 177
0.160081 25 9.42365 177 175 177
0.320176 25 9.37348 179 177 179
0.319965 24.9835 9.31722 179 177 179
0.319965 24.9835 9.26721 179 177 179
0.319965 24.9835 9.21727 179 177 179
0.320176 25 9.17344 179 177 181
0.320098 24.9939 9.12138 179 177 181
0.200103 25 9.07381 179 177 181
0.0800399 25 9.02409 179 177 181
0.0800399 25 8.97443 179 177 181
0.0800399 25 8.92484 179 177 181
0.0800399 25 8.87531 179 177 181
0.400232 25 8.82584 179 177 181
0.400232 25 8.77643 179 177 181
0.400232 25 8.72708 179 177 181
0.400232 25 8.67779 179 177 181
0.240126 25 8.62856 179 177 181
0.200103 25 8.5794 179 177 181
0.320176 25 8.53029 179 177 181
0.320176 25 8.48124 179 177 181
0.320176 25 8.43225 179 177 181
0.160081 25 8.38332 180 178 182
0.160081 25 8.33444 180 178 182
0.160081 25 8.28562 180 178 182
0.160081 25 8.23686 180 178 182
0.200103 25 8.18816 180 178 182
0.320176 25 8.13951 180 178 182
0.320176 25 8.09092 180 178 182
0.320176 25 8.04238 180 178 182
0.28015 25 7.9939 180 178 180
0.28015 25 7.94547 180 178 180
0.28015 25 7.8971 180 178 180
0.320176 25 7.84878 180 178 180
0.240126 25 7.80051 180 178 180
0.360203 25 7.7523 180 178 180
0.360203 25 7.70413 180 178 180
0.360203 25 7.65602 180 178 180
0.240126 25 7.60797 179 177 179
0.240126 25 7.55996 179 177 179
0.240126 25 7.51201 179 177 179
0.240126 25 7.4641 179 177 179
0.400232 25 7.41625 180 178 180
0.480297 25 7.36844 179 177 179
0.480297 25 7.32069 179 177 179
0.480297 25 7.27298 179 177 179
0.28015 25 7.22533 180 177 179
0.28015 25 7.17772 180 177 179
0.28015 25 7.13016 180 177 179
0.28015 25 7.08265 180 177 179
0.28015 25 7.03518 180 177 179
0.28015 25 6.98776 180 177 179
0.28015 25 6.94039 180 177 179
0.400232 25 6.89307 180 177 179
0.400232 25 6.84579 180 177 179
0.440264 25 6.79855 180 177 179
0.440264 25 6.75136 180 177 179
0.600413 25 6.70422 180 177 179
0.640457 25 6.65712 176 174 178
0.640457 25 6.61006 177 175 179
0.640457 25 6.56305 178 176 180
0.640457 25 6.51608 179 177 181
0.640457 25 6.46916 179 177 181
0.640457 25 6.42228 179 177 181
0.640457 25 6.37543 179 177 181
0.640457 25 6.32864 179 177 181
0.640457 25 6.28188 179 177 181
0.640457 25 6.23516 179 177 181
0.640457 25 6.18849 179 177 181
0.640457 25 6.14186 179 177 181
0.400232 25 6.09526 180 178 180
0.520333 25 6.04871 180 178 180
0.400232 25 6.00219 179 177 179
0.400232 25 5.95572 179 177 179
0.400232 25 5.90928 178 176 178
0.560371 25 5.86289 178 176 178
0.560371 25 5.81653 177 175 177
0.720556 25 5.77021 179 177 179
0.720556 25 5.72392 179 177 179
0.680505 25 5.67768 179 177 179
0.680505 25 5.63147 179 177 179
0.680505 25 5.58529 179 177 179
0.560371 25 5.53916 180 177 179
0.600413 25 5.49306 180 177 179
0.640457 25 5.44699 179 177 179
0.640457 25 5.40096 179 177 179
0.760611 25 5.35497 180 178 180
0.760611 25 5.30901 180 178 180
0.640457 25 5.26308 180 178 180
0.640457 25 5.21719 180 178 180
0.520333 25 5.17133 178 176 178
0.520333 25 5.12551 178 176 178
0.520333 25 5.07971 177 175 177
0.640457 25 5.03396 180 178 180
0.680505 25 4.98823 178 176 178
0.760611 25 4.94253 178 176 178
0.600413 25 4.89687 179 177 179
0.640457 25 4.85124 177 175 177
0.720556 25 4.80564 177 175 177
0.840733 25 4.76007 176 174 176
0.840733 25 4.71453 176 174 176
0.840733 25 4.66902 176 174 176
0.720556 25 4.62354 176 174 176
0.680505 25 4.57809 177 175 177
0.600413 25 4.53267 179 177 179
0.600413 25 4.48728 180 178 180
0.600413 25 4.44192 180 178 180
0.600413 25 4.39659 181 179 181
0.600413 25 4.35128 181 179 181
0.600413 25 4.306 181 179 181
0.720556 25 4.26075 181 179 181
0.720556 25 4.21553 181 179 181
0.720556 25 4.17033 181 179 181
0.760611 25 4.12516 181 179 181
0.760611 25 4.08002 181 179 181
0.80067 25 4.0349 181 179 181
0.80067 25 3.9898 181 179 181
0.80067 25 3.94474 181 179 181
0.680505 25 3.89969 180 178 180
0.680505 25 3.85468 179 177 179
0.680505 25 3.80968 179 177 179
0.840733 25 3.76471 179 177 179
0.600413 25 3.71977 178 176 178
0.840733 25 3.67485 177 175 177
0.840733 25 3.62995 176 174 176
0.840733 25 3.58507 175 173 175
0.600413 25 3.54022 179 177 179
0.600413 25 3.49539 179 177 179
0.600413 25 3.45058 179 177 179
0.600413 25 3.40579 179 177 179
0.600413 25 3.36103 179 177 179
0.600413 25 3.31628 179 177 179
0.720556 25 3.27156 181 179 181
0.720556 25 3.22686 181 179 181
0.80067 25 3.18217 180 178 180
0.840733 25 3.13751 179 177 179
0.840733 25 3.09287 179 177 179
0.840733 25 3.04824 179 177 179
0.840733 25 3.00364 179 177 179
0.840733 25 2.95905 179 177 179
0.840733 25 2.91449 179 177 179
0.840733 25 2.86994 179 177 179
0.440264 25 2.82541 179 177 179
0.520333 25 2.78089 179 177 179
0.520333 25 2.7364 179 177 179
0.520333 25 2.69192 179 177 179
0.520333 25 2.64746 179 177 179
0.520333 25 2.60301 179 177 179
0.520333 25 2.55858 179 177 179
0.520333 25 2.51417 179 177 179
0.320176 25 2.46977 177 175 177
0.440264 25 2.42539 177 175 177
0.480297 25 2.38102 176 174 176
0.440264 25 2.33667 176 174 176
0.440264 25 2.29234 176 174 176
0.480297 25 2.24801 175 173 175
0.480297 25 2.2037 175 173 175
0.480297 25 2.15941 175 173 175
0.520333 25 2.11513 180 171 171
0.360203 25 2.07086 176 170 171
0.480297 25 2.0266 184 178 181
0.520333 25 1.98236 167 161 164
0.480297 25 1.93813 146 137 137
0.440264 25 1.89391 130 116 109
0.400232 25 1.8497 103 82 72
-7.8879 14.0274 -0.790146 199 197 199
-7.88589 14.0238 -0.814685 194 192 194
-7.88589 14.0238 -0.839431 195 193 195
-7.88589 14.0238 -0.864182 194 192 194
-7.8879 14.0274 -0.913932 197 195 197
-7.84674 14.0594 -0.940846 215 213 215
-7.60613 14.3206 -0.983625 212 210 212
-7.30149 14.6402 -1.03145 215 216 219
-7.13484 14.8375 -1.07157 210 206 211
-6.83032 15.1884 -1.12376 202 203 204
-6.54149 15.5328 -1.17671 216 217 218
-6.29097 15.8523 -1.22895 204 202 204
-6.04822 16.1381 -1.27966 192 190 192
-5.73296 16.5769 -1.34379 189 187 189
-5.41944 16.9796 -1.40649 202 200 202
-5.11668 17.3653 -1.46919 187 188 189
8.05773 24.8333 11.1501 166 164 168
8.05773 24.8333 11.0977 166 164 168
8.12131 24.8934 11.0721 166 164 168
8.33358 25 11.0669 166 164 168
8.33358 25 11.0143 166 164 168
8.33358 25 10.9619 166 164 168
8.33358 25 10.9095 166 164 168
8.33358 25 10.8572 166 164 168
8.12131 24.8934 10.7589 168 166 170
8.12131 24.8934 10.707 168 166 170
8.12131 24.8934 10.6552 168 166 170
8.28913 25 10.6488 168 166 170
8.28913 25 10.5969 168 166 170
8.18526 24.9539 10.5256 168 166 170
8.24474 25 10.4934 168 166 170
8.24474 25 10.4417 168 166 170
8.12131 24.8934 10.3458 168 166 170
8.05773 24.8333 10.2696 168 166 170
8.05773 24.8333 10.2185 168 166 170
8.18526 24.9539 10.2169 169 167 171
8.24474 25 10.1845 169 167 171
8.33358 25 10.1333 168 166 170
8.33358 25 10.0821 168 166 170
8.33358 25 10.0311 168 166 170
8.24474 25 9.98005 169 167 171
8.24474 25 9.92912 169 167 171
8.24474 25 9.87826 169 167 171
8.42261 25 9.82747 169 167 171
8.42261 25 9.77675 169 167 171
8.46719 25 9.7261 169 167 171
8.24474 25 9.67552 169 167 171
8.24474 25 9.62501 169 167 171
8.18526 24.9539 9.5569 167 168 171
8.18526 24.9539 9.50662 167 168 171
8.18526 24.9539 9.4564 167 168 171
8.18526 24.9539 9.40626 167 168 171
8.33358 25 9.37348 167 168 171
8.46719 25 9.32337 167 168 171
8.46719 25 9.27333 167 168 171
8.46719 25 9.22335 167 168 171
8.18526 24.9539 9.15651 167 168 171
8.18526 24.9539 9.10675 167 168 171
8.18526 24.9539 9.05706 167 168 171
8.18526 24.9539 9.00743 167 168 171
8.18526 24.9539 8.95787 167 168 171
8.18526 24.9539 8.90837 167 168 171
8.18526 24.9539 8.85893 167 168 171
8.18526 24.9539 8.80955 167 168 171
8.24474 25 8.77643 170 168 172
8.24474 25 8.72708 170 168 172
8.24474 25 8.67779 170 168 172
8.24474 25 8.62856 170 168 172
8.24474 25 8.5794 170 168 172
8.37807 25 8.53029 170 168 172
8.42261 25 8.48124 170 168 172
8.42261 25 8.43225 170 168 172
8.64603 25 8.38332 170 168 172
8.64603 25 8.33444 170 168 172
8.64603 25 8.28562 170 168 172
8.64603 25 8.23686 170 168 172
8.64603 25 8.18816 170 168 172
8.64603 25 8.13951 170 168 172
8.64603 25 8.09092 170 168 172
8.64603 25 8.04238 170 168 172
8.64603 25 7.9939 168 169 172
8.64603 25 7.94547 168 169 172
8.64603 25 7.8971 168 169 172
8.64603 25 7.84878 168 169 172
8.64603 25 7.80051 168 169 172
8.64603 25 7.7523 168 169 172
8.64603 25 7.70413 168 169 172
8.64603 25 7.65602 168 169 172
8.69086 25 7.60797 168 169 172
8.69086 25 7.55996 168 169 172
8.69086 25 7.51201 168 169 172
8.69086 25 7.4641 168 169 172
8.69086 25 7.41625 168 169 172
8.51183 25 7.36844 170 168 172
8.46719 25 7.32069 170 168 172
8.46719 25 7.27298 170 168 172
8.55651 25 7.22533 170 168 172
8.55651 25 7.17772 170 168 172
8.55651 25 7.13016 170 168 172
8.69086 25 7.08265 169 167 171
8.69086 25 7.03518 169 167 171
8.55651 25 6.98776 170 168 172
8.55651 25 6.94039 170 168 172
8.42261 25 6.89307 170 168 172
8.73574 25 6.84579 170 168 172
8.73574 25 6.79855 170 168 172
8.73574 25 6.75136 170 168 172
8.73574 25 6.70422 170 168 172
8.73574 25 6.65712 170 168 172
8.73574 25 6.61006 170 168 172
8.73574 25 6.56305 170 168 172
8.73574 25 6.51608 170 168 172
8.46719 25 6.46916 168 169 172
8.46719 25 6.42228 168 169 172
8.42261 25 6.37543 168 169 172
8.46719 25 6.32864 168 169 172
8.46719 25 6.28188 168 169 172
8.64603 25 6.23516 166 167 170
8.60124 25 6.18849 168 169 172
8.60124 25 6.14186 168 169 172
8.46719 25 6.09526 168 169 172
8.46719 25 6.04871 168 169 172
8.46719 25 6.00219 168 169 172
8.46719 25 5.95572 168 169 172
8.46719 25 5.90928 168 169 172
8.51183 25 5.86289 168 169 172
8.60124 25 5.81653 168 169 172
8.60124 25 5.77021 168 169 172
8.46719 25 5.72392 168 169 172
8.46719 25 5.67768 168 169 172
8.46719 25 5.63147 168 169 172
8.51183 25 5.58529 168 169 172
8.51183 25 5.53916 168 169 172
8.51183 25 5.49306 168 169 172
8.51183 25 5.44699 168 169 172
8.51183 25 5.40096 168 169 172
8.82565 25 5.35497 168 169 172
8.82565 25 5.30901 168 169 172
8.82565 25 5.26308 168 169 172
8.82565 25 5.21719 168 169 172
8.82565 25 5.17133 168 169 172
8.82565 25 5.12551 168 169 172
8.82565 25 5.07971 168 169 172
8.82565 25 5.03396 168 169 172
8.78067 25 4.98823 170 168 172
8.78067 25 4.94253 170 168 172
8.78067 25 4.89687 170 168 172
8.78067 25 4.85124 170 168 172
8.69086 25 4.80564 170 168 172
8.69086 25 4.76007 170 168 172
8.69086 25 4.71453 170 168 172
8.69086 25 4.66902 170 168 172
8.69086 25 4.62354 170 168 172
8.87068 25 4.57809 170 168 172
8.87068 25 4.53267 170 168 172
8.87068 25 4.48728 170 168 172
8.87068 25 4.44192 170 168 172
8.87068 25 4.39659 170 168 172
8.64603 25 4.35128 170 168 172
8.55651 25 4.306 170 168 172
8.69086 25 4.26075 172 170 174
8.69086 25 4.21553 172 170 174
8.69086 25 4.17033 172 170 174
8.69086 25 4.12516 172 170 174
8.55651 25 4.08002 170 171 174
8.55651 25 4.0349 170 171 174
8.55651 25 3.9898 170 171 174
8.55651 25 3.94474 170 171 174
8.55651 25 3.89969 172 170 174
8.55651 25 3.85468 172 170 174
8.55651 25 3.80968 172 170 174
8.55651 25 3.76471 172 170 174
8.55651 25 3.71977 172 170 174
8.55651 25 3.67485 172 170 174
8.55651 25 3.62995 172 170 174
8.55651 25 3.58507 172 170 174
8.60124 25 3.54022 173 171 175
8.60124 25 3.49539 173 171 175
8.60124 25 3.45058 173 171 175
8.60124 25 3.40579 173 171 175
8.60124 25 3.36103 173 171 175
8.60124 25 3.31628 173 171 175
8.60124 25 3.27156 173 171 175
8.60124 25 3.22686 173 171 175
8.64603 25 3.18217 172 173 176
8.64603 25 3.13751 172 173 176
8.64603 25 3.09287 172 173 176
8.64603 25 3.04824 172 173 176
8.64603 25 3.00364 172 173 176
8.60124 25 2.95905 173 171 175
8.60124 25 2.91449 173 171 175
8.60124 25 2.86994 173 171 175
8.60124 25 2.82541 172 170 174
8.60124 25 2.78089 172 170 174
8.60124 25 2.7364 172 170 174
8.60124 25 2.69192 172 170 174
8.60124 25 2.64746 172 170 174
8.60124 25 2.60301 172 170 174
8.60124 25 2.55858 172 170 174
8.60124 25 2.51417 172 170 174
8.82565 25 2.46977 171 172 175
8.78067 25 2.42539 171 172 175
8.78067 25 2.38102 171 172 175
8.82565 25 2.33667 171 172 175
8.82565 25 2.29234 171 172 175
9.00609 25 2.24801 172 173 176
9.00609 25 2.2037 172 173 176
9.00609 25 2.15941 172 173 176
8.82565 25 2.11513 173 171 175
9.05133 25 2.07086 173 171 175
9.05133 25 2.0266 173 171 175
9.05133 25 1.98236 173 171 175
9.05133 25 1.93813 173 171 175
9.05133 25 1.89391 173 171 175
9.05133 25 1.8497 173 171 175
-0.446261 16.3945 1.18402 155 155 148
-0.42067 16.4207 1.15689 149 136 123
-0.42067 16.4207 1.12787 88 73 59
-0.471774 16.3684 1.09536 95 80 60
-0.446261 16.3945 1.06816 98 75 58
-0.522562 16.3164 0.97666 150 131 115
-0.57304 16.2648 0.944868 174 159 139
-0.57304 16.2648 0.916174 191 174 149
-0.57304 16.2648 0.887486 186 169 144
-0.57304 16.2648 0.858804 178 160 137
-0.57304 16.2648 0.830126 172 154 133
-0.497207 16.3423 0.805278 165 147 128
-0.497207 16.3423 0.776474 163 144 128
-0.54784 16.2905 0.745304 160 141 125
-0.623211 16.2134 0.713209 156 137 122
-0.57304 16.2648 0.686813 160 141 125
-0.54784 16.2905 0.659207 160 141 125
-0.54784 16.2905 0.630517 160 141 125
-0.497207 16.3423 0.603745 158 139 123
-0.497207 16.3423 0.574971 157 138 122
-0.497207 16.3423 0.5462 157 138 122
-0.497207 16.3423 0.517433 156 137 121
-0.497207 16.3423 0.488669 156 137 121
-0.497207 16.3423 0.459908 155 137 114
-0.497207 16.3423 0.43115 154 136 113
-0.497207 16.3423 0.402395 154 136 113
-0.497207 16.3423 0.373642 154 136 113
-0.497207 16.3423 0.344891 153 135 112
-0.497207 16.3423 0.316143 153 135 112
-0.497207 16.3423 0.287396 152 134 111
-0.497207 16.3423 0.258652 152 134 111
-0.497207 16.3423 0.229909 152 134 111
-0.497207 16.3423 0.201167 152 134 111
-0.497207 16.3423 0.172426 152 134 111
-0.497207 16.3423 0.143687 152 134 111
-0.497207 16.3423 0.114949 152 134 111
-0.497207 16.3423 0.0862108 152 134 111
-0.497207 16.3423 0.0574736 152 134 111
-0.54784 16.2905 0.0286456 153 135 112
-0.598163 16.239 0 148 130 107
-0.598163 16.239 -0.0285551 148 130 107
-0.598163 16.239 -0.0571103 149 131 108
-0.54784 16.2905 -0.0859375 151 133 110
-0.57304 16.2648 -0.114403 151 133 110
-0.57304 16.2648 -0.143005 152 134 111
-0.497207 16.3423 -0.172426 152 134 111
-0.497207 16.3423 -0.201167 152 134 111
-0.497207 16.3423 -0.229909 152 134 111
-0.497207 16.3423 -0.258652 152 134 111
-0.497207 16.3423 -0.287396 152 134 111
-0.497207 16.3423 -0.316143 151 133 110
-0.497207 16.3423 -0.344891 151 133 110
-0.497207 16.3423 -0.373642 151 133 110
-0.54784 16.2905 -0.401119 149 131 108
-0.54784 16.2905 -0.429783 148 130 107
-0.598163 16.239 -0.457001 148 132 102
-0.598163 16.239 -0.48558 149 133 103
-0.598163 16.239 -0.514162 149 133 103
-0.598163 16.239 -0.542748 150 134 104
-0.598163 16.239 -0.571336 150 134 104
-0.57304 16.2648 -0.600878 150 134 104
-0.54784 16.2905 -0.630517 150 134 104
-0.54784 16.2905 -0.659207 150 134 104
-0.598163 16.239 -0.685728 151 134 109
-0.54784 16.2905 -0.716601 150 133 108
-0.54784 16.2905 -0.745304 150 133 108
-0.54784 16.2905 -0.774012 150 133 108
-0.54784 16.2905 -0.802725 150 133 108
-0.54784 16.2905 -0.831442 150 133 108
-0.57304 16.2648 -0.858804 151 134 109
-0.598163 16.239 -0.886084 151 134 109
-0.598163 16.239 -0.914727 146 129 104
-0.598163 16.239 -0.943375 147 130 105
-0.598163 16.239 -0.972029 148 131 106
-0.598163 16.239 -1.00069 149 132 107
-0.54784 16.2905 -1.03262 150 133 108
-0.54784 16.2905 -1.06138 151 134 109
-0.522562 16.3164 -1.09189 152 135 110
-0.497207 16.3423 -1.12249 151 134 109
-0.497207 16.3423 -1.15137 150 132 109
-0.497207 16.3423 -1.18025 151 133 110
-0.497207 16.3423 -1.20914 153 135 112
-0.497207 16.3423 -1.23804 154 136 113
-0.497207 16.3423 -1.26694 154 136 113
-0.497207 16.3423 -1.29586 153 135 112
-0.497207 16.3423 -1.32478 151 133 110
-0.497207 16.3423 -1.35371 150 132 109
-0.598163 16.239 -1.37391 151 134 109
-0.598163 16.239 -1.40267 151 134 109
-0.598163 16.239 -1.43144 151 134 109
-0.598163 16.239 -1.46022 151 134 109
-0.598163 16.239 -1.48901 151 134 109
-0.598163 16.239 -1.51781 151 134 109
-0.598163 16.239 -1.54662 151 134 109
-0.54784 16.2905 -1.58044 151 134 109
-0.522562 16.3164 -1.61191 152 133 109
-0.497207 16.3423 -1.6435 151 132 108
-0.522562 16.3164 -1.66987 151 132 108
-0.497207 16.3423 -1.70157 150 131 107
-0.497207 16.3423 -1.73063 150 131 107
-0.522562 16.3164 -1.7569 150 131 107
-0.497207 16.3423 -1.78877 149 130 106
-0.522562 16.3164 -1.81497 149 130 106
-0.54784 16.2905 -1.8411 147 129 106
-0.57304 16.2648 -1.86715 148 131 106
-0.54784 16.2905 -1.89914 147 130 105
-0.598163 16.239 -1.92209 148 131 104
-0.598163 16.239 -1.95105 147 131 101
-0.598163 16.239 -1.98002 147 131 99
-0.598163 16.239 -2.00901 147 131 97
-0.598163 16.239 -2.03801 146 130 96
-0.497207 16.3423 -2.08017 145 127 94
-0.497207 16.3423 -2.10938 145 127 94
-0.497207 16.3423 -2.1386 145 127 94
-0.497207 16.3423 -2.16783 145 127 94
-0.497207 16.3423 -2.19708 145 127 94
-0.497207 16.3423 -2.22635 145 127 94
-0.497207 16.3423 -2.25562 145 127 94
-0.497207 16.3423 -2.28491 145 127 94
-0.623211 16.2134 -2.29596 148 130 99
-0.623211 16.2134 -2.32505 148 130 99
-0.598163 16.239 -2.35788 147 129 98
-0.623211 16.2134 -2.38327 147 129 98
-0.623211 16.2134 -2.41241 147 129 98
-0.598163 16.239 -2.44541 146 128 97
-0.598163 16.239 -2.47463 146 128 97
-0.598163 16.239 -2.50385 146 128 97
-0.497207 16.3423 -2.54921 145 127 96
-0.497207 16.3423 -2.57865 145 127 96
-0.497207 16.3423 -2.60811 145 127 96
-0.497207 16.3423 -2.63759 145 127 96
-0.497207 16.3423 -2.66708 145 127 96
-0.497207 16.3423 -2.69659 146 128 97
-0.497207 16.3423 -2.72612 146 128 97
-0.497207 16.3423 -2.75566 146 128 97
-0.598163 16.239 -2.76762 149 131 102
-0.598163 16.239 -2.79702 149 131 102
-0.598163 16.239 -2.82643 149 131 102
-0.598163 16.239 -2.85586 149 131 102
-0.598163 16.239 -2.8853 149 131 102
-0.598163 16.239 -2.91477 149 131 102
-0.598163 16.239 -2.94425 149 131 102
-0.598163 16.239 -2.97376 149 131 102
-0.497207 16.3423 -3.02238 147 129 106
-0.497207 16.3423 -3.05211 147 130 105
-0.57304 16.2648 -3.06723 148 131 106
-0.57304 16.2648 -3.09685 146 129 102
-0.57304 16.2648 -3.1265 145 129 99
-0.623211 16.2134 -3.14621 143 127 95
-0.623211 16.2134 -3.1758 142 126 92
-0.623211 16.2134 -3.20542 142 126 92
-0.54784 16.2905 -3.25044 144 124 90
-0.54784 16.2905 -3.28023 144 124 90
-0.54784 16.2905 -3.31005 144 124 90
-0.54784 16.2905 -3.33989 143 123 89
-0.54784 16.2905 -3.36975 143 123 89
-0.54784 16.2905 -3.39963 142 122 88
-0.54784 16.2905 -3.42954 142 122 88
-0.54784 16.2905 -3.45946 142 122 88
-0.54784 16.2905 -3.48941 145 121 94
-0.54784 16.2905 -3.51938 144 120 91
-0.54784 16.2905 -3.54938 143 119 90
-0.54784 16.2905 -3.57939 142 118 87
-0.54784 16.2905 -3.60943 141 118 85
